ply
format ascii 1.0
element vertex 3293
property float x
property float y
property float z
property uchar signal_strength
end_header
103 -2 -81 199
101 -2 -80 199
99 -2 -80 199
99 -2 -81 199
97 -2 -81 199
95 -2 -81 199
93 -2 -80 199
92 -2 -80 199
91 -2 -80 199
89 -2 -80 199
89 -2 -81 199
88 -2 -81 199
87 -2 -82 199
86 -2 -82 199
83 -2 -81 199
82 -2 -81 199
81 -2 -81 199
-68 2 -67 191
-68 2 -66 191
-69 2 -66 191
-71 2 -66 191
-71 2 -66 191
-73 2 -66 191
-75 2 -66 191
-75 2 -66 199
-76 2 -65 191
-76 2 -64 191
-79 2 -66 191
-80 3 -65 199
-81 3 -65 191
-82 3 -64 191
-84 3 -65 199
-86 3 -65 199
-87 3 -64 199
-87 3 -64 199
-89 3 -64 199
-90 3 -63 199
-91 3 -63 199
-93 3 -63 199
-96 3 -64 199
-97 3 -64 199
-96 3 -62 199
-97 3 -61 199
-98 3 -61 199
-101 3 -62 199
-103 3 -62 191
-103 3 -61 199
-105 3 -61 199
-106 3 -61 199
-109 3 -61 199
-111 3 -61 199
-112 4 -61 199
-112 4 -60 199
-115 4 -60 183
-117 4 -59 183
-114 4 -56 175
-116 4 -56 183
-114 4 -54 191
-111 3 -51 191
-111 3 -50 199
-108 3 -48 199
-108 3 -47 199
-109 3 -46 199
-109 3 -45 199
-109 3 -44 199
-108 3 -43 199
-108 3 -42 199
-108 3 -41 199
-109 3 -40 199
-108 3 -39 199
-109 3 -39 199
-110 3 -38 199
-109 3 -37 199
-109 3 -36 199
-109 3 -35 199
-109 3 -34 199
-108 3 -33 199
-108 3 -32 199
-109 3 -31 199
-109 3 -30 199
-110 3 -30 199
-109 3 -29 199
-109 3 -28 199
-108 3 -27 199
-108 3 -26 199
-109 3 -25 199
-109 3 -24 199
-109 3 -23 199
-110 3 -22 199
-109 3 -21 199
-110 3 -21 199
-109 3 -20 199
-110 3 -19 199
-109 3 -18 199
-111 3 -18 199
-112 4 -17 199
-111 3 -16 199
-111 3 -15 199
-113 4 -14 199
-110 3 -13 199
-111 3 -12 199
-112 4 -12 199
-113 4 -11 199
-112 4 -10 199
-113 4 -9 199
-112 4 -8 199
-111 3 -8 199
-109 3 -7 199
-108 3 -6 199
-109 3 -5 199
-108 3 -4 199
-108 3 -3 199
-108 3 -3 199
-107 3 -2 199
-109 3 -1 199
-111 3 0 199
-112 4 1 199
-112 4 2 199
-112 4 2 199
-124 4 4 199
-158 5 6 199
-163 5 7 199
-163 5 9 199
-162 5 10 199
-165 5 11 199
-131 4 12 98
-113 4 14 98
-109 3 14 191
-103 3 14 199
-108 3 16 199
-113 4 17 199
-118 4 19 199
-118 4 20 199
-117 4 21 199
-119 4 22 199
-121 4 23 199
-123 4 25 199
-143 4 30 199
-197 6 43 199
-204 6 45 199
-193 6 45 191
-164 5 40 167
-156 5 40 191
-158 5 42 199
-159 5 43 199
-158 5 44 199
-158 5 46 199
-160 5 48 191
-159 5 49 199
-160 5 51 199
-157 5 51 199
-159 5 53 191
-159 5 55 199
-160 5 57 199
-160 5 58 199
-156 5 58 199
-158 5 60 199
-158 5 62 199
-158 5 64 199
-155 5 64 191
-157 5 67 191
-165 5 72 191
-198 6 88 183
-202 6 92 191
-202 6 94 199
-200 6 95 199
-201 6 98 191
-200 6 100 199
-200 6 101 191
-200 6 104 191
-198 6 105 199
-191 6 103 199
-187 6 104 199
-185 6 104 199
-180 6 103 199
-175 6 102 199
-174 5 103 199
-170 5 102 199
-164 5 100 199
-172 5 107 199
-196 6 124 191
-201 6 130 199
-200 6 131 199
-199 6 133 199
-202 6 137 199
-199 6 138 199
-199 6 140 199
-195 6 139 199
-192 6 139 199
-187 6 137 199
-183 6 137 199
-181 6 138 199
-176 6 136 199
-174 5 137 199
-170 5 136 199
-167 5 136 199
-164 5 136 199
-163 5 137 199
-176 6 150 199
-196 6 170 191
-195 6 173 199
-191 6 172 191
-189 6 173 199
-186 6 173 199
-184 6 173 199
-180 6 172 199
-176 6 171 199
-175 6 172 199
-172 5 172 199
-169 5 172 199
-167 5 171 199
-166 5 173 199
-162 5 172 199
-159 5 171 199
-157 5 172 199
-157 5 175 199
-152 5 171 199
-151 5 172 199
-147 5 171 199
-147 5 173 199
-147 5 177 199
-145 5 177 199
-147 5 181 199
-145 5 181 199
-146 5 186 199
-144 5 187 199
-145 5 191 199
-145 5 194 199
-143 4 194 199
-148 5 204 199
-165 5 232 191
-163 5 233 191
-161 5 235 191
-158 5 234 191
-155 5 234 199
-151 5 232 199
-149 5 232 199
-147 5 234 199
-143 5 232 199
-142 4 233 199
-140 4 233 199
-137 4 234 199
-134 4 232 199
-132 4 233 199
-130 4 232 199
-127 4 232 199
-126 4 233 199
-122 4 231 199
-120 4 231 199
-118 4 231 199
-115 4 230 199
-114 4 232 199
-111 3 230 199
-108 3 229 199
-107 3 230 199
-104 3 229 199
-102 3 229 199
-100 3 229 199
-98 3 229 199
-96 3 229 199
-94 3 227 199
-92 3 229 199
-90 3 229 199
-88 3 229 199
-86 3 227 199
-84 3 229 199
-82 3 229 199
-81 3 229 199
-78 2 228 199
-76 2 229 199
-74 2 228 199
-73 2 229 199
-71 2 227 199
-69 2 228 199
-67 2 228 199
-65 2 229 199
-63 2 227 199
-61 2 227 199
-59 2 226 199
-58 2 227 199
-56 2 227 199
-53 2 225 199
-52 2 225 199
-50 2 224 199
-48 2 225 199
-46 1 223 199
-44 1 223 199
-43 1 223 199
-41 1 221 199
-39 1 224 199
-37 1 222 199
-36 1 222 199
-34 1 221 199
-32 1 221 199
-31 1 221 199
-29 1 221 199
-27 1 223 199
-25 1 222 199
-24 1 224 199
-22 1 224 199
-20 1 224 199
-18 1 220 199
-16 1 221 199
-15 0 219 199
-13 0 222 199
-11 0 219 199
-9 0 219 199
-8 0 220 199
-6 0 218 199
-4 0 217 199
-3 0 216 199
-1 0 218 199
0 0 217 199
2 0 217 199
4 0 219 199
5 0 218 199
7 0 218 199
9 0 220 199
11 0 216 199
13 0 218 199
14 0 218 199
16 0 216 199
17 -1 216 199
19 -1 216 199
20 -1 215 199
22 -1 216 199
24 -1 218 199
25 -1 217 199
27 -1 216 199
28 -1 214 199
30 -1 214 199
32 -1 217 199
34 -1 219 199
36 -1 218 199
38 -1 218 199
39 -1 213 199
41 -1 215 199
43 -1 214 199
45 -1 214 199
46 -1 213 199
48 -2 215 199
50 -2 214 199
52 -2 215 199
53 -2 212 199
55 -2 213 199
57 -2 212 199
60 -2 215 199
61 -2 213 199
63 -2 213 199
64 -2 212 199
66 -2 212 199
68 -2 212 199
69 -2 210 199
71 -2 211 199
73 -2 212 199
75 -2 212 199
76 -2 211 199
79 -2 213 199
79 -2 211 199
82 -3 213 199
83 -3 210 199
86 -3 211 199
87 -3 211 199
89 -3 210 199
91 -3 211 199
93 -3 211 199
94 -3 210 199
96 -3 209 199
99 -3 212 199
100 -3 211 199
102 -3 210 199
104 -3 211 199
107 -3 213 199
108 -3 212 199
110 -3 211 199
112 -4 210 199
114 -4 210 199
116 -4 210 199
117 -4 209 199
119 -4 208 199
121 -4 209 199
123 -4 209 199
125 -4 208 199
127 -4 209 199
128 -4 207 199
131 -4 208 199
133 -4 207 199
134 -4 205 199
135 -4 204 199
135 -4 202 199
134 -4 197 199
133 -4 191 199
133 -4 189 199
135 -4 189 199
134 -4 184 199
135 -4 181 199
134 -4 178 199
135 -4 175 199
133 -4 170 199
132 -4 166 199
132 -4 163 199
134 -4 163 199
134 -4 160 199
132 -4 156 199
132 -4 153 199
131 -4 150 199
132 -4 149 199
132 -4 146 199
132 -4 145 199
130 -4 140 199
129 -4 138 199
128 -4 134 199
129 -4 133 199
128 -4 131 199
128 -4 128 199
128 -4 127 199
128 -4 125 199
128 -4 123 199
128 -4 121 199
127 -4 119 199
128 -4 118 199
127 -4 115 199
128 -4 114 199
126 -4 111 199
126 -4 109 199
126 -4 108 199
126 -4 105 199
125 -4 104 199
126 -4 102 199
126 -4 101 199
125 -4 99 199
127 -4 99 199
127 -4 97 199
126 -4 95 199
126 -4 93 199
126 -4 92 199
126 -4 90 199
126 -4 89 199
126 -4 87 199
126 -4 86 199
126 -4 85 199
126 -4 83 199
126 -4 82 199
126 -4 81 199
126 -4 80 199
127 -4 79 199
127 -4 78 199
127 -4 76 199
127 -4 75 199
126 -4 73 199
126 -4 72 199
126 -4 71 199
127 -4 70 199
125 -4 68 199
125 -4 67 199
125 -4 65 199
125 -4 64 199
125 -4 63 199
125 -4 62 199
124 -4 60 199
125 -4 59 199
124 -4 58 199
124 -4 57 199
124 -4 56 199
124 -4 54 199
122 -4 53 199
123 -4 52 199
122 -4 50 199
121 -4 49 199
122 -4 48 199
122 -4 47 199
123 -4 46 199
124 -4 46 199
125 -4 45 199
125 -4 44 199
123 -4 42 199
124 -4 41 199
125 -4 40 199
123 -4 39 199
123 -4 38 199
124 -4 37 199
123 -4 36 199
123 -4 35 199
123 -4 34 199
124 -4 33 199
123 -4 32 199
123 -4 31 199
123 -4 30 199
123 -4 29 199
124 -4 28 199
123 -4 27 199
124 -4 26 199
124 -4 25 199
125 -4 24 199
125 -4 23 199
124 -4 22 199
124 -4 21 199
125 -4 20 199
123 -4 19 199
124 -4 18 199
122 -4 17 199
125 -4 16 199
124 -4 15 199
122 -4 14 199
122 -4 13 199
121 -4 12 199
121 -4 11 199
121 -4 10 199
121 -4 9 199
121 -4 8 199
121 -4 8 199
121 -4 7 199
121 -4 6 199
121 -4 5 199
121 -4 4 199
121 -4 3 199
121 -4 2 199
120 -4 1 199
120 -4 1 199
121 -4 0 199
120 -4 -1 199
121 -4 -2 199
121 -4 -3 199
120 -4 -4 199
122 -4 -5 199
122 -4 -6 199
120 -4 -6 199
120 -4 -7 199
120 -4 -8 199
119 -4 -9 199
120 -4 -10 199
119 -4 -11 199
120 -4 -12 199
119 -4 -13 199
118 -4 -13 199
118 -4 -14 199
118 -4 -15 199
120 -4 -16 199
118 -4 -17 199
119 -4 -18 199
118 -4 -19 199
117 -4 -19 199
119 -4 -21 199
118 -4 -21 199
118 -4 -22 199
119 -4 -23 199
118 -4 -24 199
117 -4 -25 199
118 -4 -26 199
118 -4 -27 199
119 -4 -28 199
118 -4 -28 199
118 -4 -30 199
120 -4 -31 199
119 -4 -31 199
120 -4 -33 199
118 -4 -33 199
120 -4 -35 199
121 -4 -36 199
119 -4 -36 199
118 -4 -37 199
119 -4 -38 199
119 -4 -39 199
118 -4 -40 199
119 -4 -41 199
118 -4 -42 199
118 -4 -43 199
119 -4 -44 199
118 -4 -45 199
119 -4 -46 199
119 -4 -47 199
119 -4 -48 199
118 -4 -49 199
119 -4 -50 199
117 -4 -51 199
119 -4 -52 199
118 -4 -53 199
116 -4 -53 199
118 -4 -55 199
115 -4 -55 199
117 -4 -57 199
116 -4 -58 199
116 -4 -59 199
116 -4 -60 199
116 -4 -61 199
116 -4 -62 199
115 -4 -63 199
115 -4 -64 199
116 -4 -65 199
116 -4 -67 199
117 -4 -68 199
115 -4 -68 199
120 -4 -72 199
125 -4 -81 84
120 -4 -81 159
118 -4 -81 183
119 -4 -83 183
113 -4 -80 199
113 -4 -81 199
112 -4 -82 199
108 -3 -81 199
107 -3 -81 199
105 -3 -80 199
103 -3 -80 199
102 -3 -81 199
101 -3 -81 199
98 -3 -80 199
97 -3 -80 199
96 -3 -80 199
94 -3 -80 199
93 -3 -80 199
92 -3 -81 199
89 -3 -80 199
89 -3 -81 199
88 -3 -81 199
86 -3 -81 199
86 -3 -82 199
85 -3 -82 199
83 -3 -81 199
82 -3 -81 199
-68 3 -68 191
-69 3 -68 191
-68 3 -66 191
-70 3 -66 191
-70 3 -65 191
-74 3 -67 191
-74 3 -66 191
-75 3 -66 191
-76 3 -65 191
-76 3 -65 191
-79 3 -66 191
-80 3 -66 199
-79 3 -64 191
-82 4 -65 191
-84 4 -65 199
-85 4 -65 199
-86 4 -65 199
-86 4 -64 191
-88 4 -64 199
-89 4 -64 191
-91 4 -64 199
-93 4 -64 199
-93 4 -63 199
-96 4 -64 199
-97 4 -63 199
-98 4 -63 199
-98 4 -62 199
-100 4 -62 199
-101 4 -61 199
-101 4 -61 191
-104 5 -61 199
-104 4 -60 199
-106 5 -60 199
-107 5 -60 199
-109 5 -60 199
-110 5 -59 199
-112 5 -59 191
-114 5 -59 175
-114 5 -57 159
-114 5 -56 191
-112 5 -54 183
-110 5 -52 183
-109 5 -50 199
-108 5 -49 199
-107 5 -47 199
-106 5 -46 199
-106 5 -45 199
-106 5 -44 199
-107 5 -43 199
-106 5 -42 199
-106 5 -41 199
-108 5 -40 199
-108 5 -40 199
-107 5 -38 199
-108 5 -38 199
-106 5 -36 199
-107 5 -36 199
-107 5 -35 199
-108 5 -34 199
-108 5 -33 199
-107 5 -32 199
-107 5 -31 199
-109 5 -31 199
-108 5 -30 199
-108 5 -29 199
-108 5 -28 199
-108 5 -27 199
-109 5 -26 199
-110 5 -26 199
-110 5 -25 199
-109 5 -24 199
-110 5 -23 199
-111 5 -23 199
-110 5 -21 199
-111 5 -21 199
-112 5 -20 199
-112 5 -19 199
-111 5 -18 199
-112 5 -17 199
-112 5 -16 199
-113 5 -15 199
-113 5 -15 199
-111 5 -14 199
-112 5 -13 199
-112 5 -12 199
-112 5 -11 199
-111 5 -10 199
-111 5 -9 199
-109 5 -8 199
-109 5 -7 199
-108 5 -7 199
-108 5 -6 199
-106 5 -5 199
-106 5 -4 199
-106 5 -3 199
-106 5 -3 199
-105 5 -2 199
-106 5 -1 199
-107 5 0 199
-108 5 1 199
-109 5 1 199
-110 5 2 199
-113 5 3 199
-123 5 4 199
-159 7 7 199
-164 7 8 199
-163 7 10 199
-165 7 11 199
-154 7 12 183
-116 5 13 84
-111 5 13 167
-107 5 14 191
-104 4 14 199
-106 5 15 199
-102 4 16 191
-94 4 15 191
-91 4 16 191
-91 4 16 191
-89 4 17 191
-91 4 18 191
-91 4 19 191
-89 4 19 191
-91 4 20 191
-89 4 21 191
-90 4 22 191
-91 4 23 191
-100 4 27 191
-110 5 30 191
-115 5 33 191
-126 5 37 191
-135 6 41 199
-143 6 45 191
-145 6 46 191
-154 7 51 191
-158 7 54 199
-159 7 56 191
-159 7 57 199
-158 7 58 191
-158 7 60 199
-156 7 61 199
-159 7 63 191
-159 7 65 199
-161 7 68 191
-162 7 70 191
-193 8 85 175
-202 9 91 199
-202 9 93 191
-203 9 95 199
-204 9 98 199
-201 9 99 199
-203 9 103 199
-203 9 104 199
-200 9 105 199
-196 8 105 199
-191 8 104 199
-187 8 104 199
-182 8 103 199
-180 8 104 199
-174 8 102 199
-170 7 101 199
-168 7 101 199
-168 7 103 199
-180 8 113 199
-196 8 126 199
-200 9 131 199
-199 9 132 191
-199 9 134 199
-199 9 136 199
-199 9 139 199
-196 8 140 199
-193 8 139 199
-188 8 138 199
-186 8 139 199
-183 8 139 199
-178 8 138 199
-174 8 136 199
-170 7 136 199
-167 7 136 199
-164 7 136 199
-164 7 138 199
-185 8 159 191
-195 8 170 199
-194 8 172 199
-193 8 174 199
-189 8 174 199
-186 8 173 199
-182 8 172 199
-180 8 172 199
-177 8 172 199
-175 8 173 199
-171 7 172 199
-168 7 171 199
-165 7 171 199
-165 7 173 199
-161 7 172 199
-160 7 173 199
-158 7 174 199
-153 7 171 199
-152 7 172 199
-149 6 172 199
-148 6 174 199
-146 6 174 199
-146 6 177 199
-146 6 180 199
-145 6 182 199
-146 6 186 199
-145 6 188 199
-145 6 191 199
-145 6 194 199
-144 6 195 199
-157 7 217 199
-167 7 234 191
-165 7 236 191
-162 7 235 199
-157 7 233 199
-154 7 232 199
-153 7 233 199
-149 6 232 199
-148 6 234 199
-144 6 232 199
-143 6 234 199
-139 6 231 199
-138 6 233 199
-135 6 233 199
-131 6 230 199
-129 6 231 199
-127 5 230 199
-125 5 231 199
-124 5 233 199
-122 5 233 199
-118 5 231 199
-116 5 231 199
-114 5 231 199
-111 5 230 199
-109 5 229 199
-107 5 230 199
-105 5 229 199
-103 4 231 199
-100 4 228 199
-98 4 229 199
-97 4 230 199
-94 4 228 199
-92 4 228 199
-90 4 229 199
-88 4 229 199
-86 4 228 199
-85 4 230 199
-83 4 229 199
-81 4 230 199
-79 3 229 199
-76 3 228 199
-74 3 227 199
-73 3 228 199
-70 3 226 199
-69 3 227 199
-66 3 224 199
-64 3 225 199
-63 3 226 199
-62 3 227 199
-60 3 226 199
-57 2 225 199
-56 2 226 199
-54 2 225 199
-53 2 227 199
-50 2 222 199
-49 2 225 199
-47 2 224 199
-45 2 224 199
-43 2 223 199
-41 2 223 199
-39 2 223 199
-38 2 223 199
-36 2 222 199
-34 1 221 199
-33 1 223 199
-31 1 222 199
-29 1 222 199
-27 1 222 199
-25 1 222 199
-24 1 225 199
-22 1 222 199
-20 1 224 199
-18 1 220 199
-16 1 219 199
-14 1 221 199
-13 1 222 199
-11 0 220 199
-9 0 218 199
-7 0 220 199
-5 0 216 199
-4 0 218 199
-2 0 216 199
0 0 217 199
1 0 217 199
2 0 216 199
4 0 218 199
6 0 218 199
8 0 218 199
10 0 217 199
11 0 217 199
13 -1 215 199
14 -1 216 199
16 -1 215 199
18 -1 214 199
19 -1 214 199
21 -1 215 199
23 -1 218 199
24 -1 217 199
26 -1 214 199
27 -1 214 199
28 -1 211 199
30 -1 213 199
33 -1 217 199
35 -2 220 199
37 -2 217 199
38 -2 215 199
39 -2 214 199
41 -2 213 199
42 -2 214 199
44 -2 213 199
46 -2 214 199
48 -2 213 199
50 -2 212 199
52 -2 215 199
53 -2 212 199
55 -2 213 199
57 -2 214 199
59 -3 213 199
60 -3 212 199
62 -3 211 199
63 -3 213 199
65 -3 212 199
67 -3 212 199
69 -3 213 199
70 -3 212 199
72 -3 211 199
74 -3 213 199
75 -3 212 199
77 -3 211 199
79 -3 211 199
81 -4 211 199
83 -4 211 199
86 -4 212 199
87 -4 211 199
89 -4 212 199
91 -4 211 199
93 -4 212 199
94 -4 210 199
96 -4 211 199
98 -4 211 199
100 -4 211 199
103 -4 212 199
104 -4 211 199
106 -5 212 199
109 -5 213 199
110 -5 212 199
112 -5 211 199
114 -5 211 199
116 -5 211 199
117 -5 210 199
120 -5 210 199
121 -5 209 199
123 -5 208 199
125 -5 209 199
127 -5 208 199
130 -6 209 199
131 -6 207 199
133 -6 207 199
135 -6 207 199
136 -6 206 199
136 -6 202 199
136 -6 199 199
136 -6 196 199
137 -6 195 199
136 -6 189 199
135 -6 185 191
135 -6 181 199
135 -6 179 199
135 -6 176 199
135 -6 172 199
135 -6 169 199
134 -6 166 199
135 -6 164 199
135 -6 161 199
134 -6 159 199
133 -6 155 199
133 -6 152 199
132 -6 149 199
132 -6 147 199
131 -6 143 199
130 -6 140 199
132 -6 140 199
129 -6 135 199
128 -6 132 199
129 -6 131 199
129 -6 129 199
129 -6 127 199
128 -6 124 199
128 -6 122 199
127 -6 120 199
128 -6 119 199
127 -5 116 199
129 -6 116 199
128 -6 113 199
127 -5 111 199
127 -5 109 199
126 -5 107 199
127 -5 106 199
126 -5 104 199
126 -5 102 199
127 -5 101 199
127 -5 99 199
126 -5 98 199
127 -5 97 199
128 -6 96 199
127 -5 94 199
128 -6 93 199
128 -6 91 199
127 -6 90 199
127 -6 88 199
127 -5 87 199
128 -6 86 199
128 -6 84 199
127 -6 83 199
128 -6 82 199
127 -5 80 199
127 -5 78 199
126 -5 77 199
126 -5 75 199
127 -5 74 199
127 -5 74 199
125 -5 71 199
126 -5 70 199
125 -5 69 199
126 -5 68 199
124 -5 66 199
125 -5 65 199
125 -5 64 199
125 -5 63 199
125 -5 61 199
124 -5 60 199
124 -5 59 199
124 -5 58 199
123 -5 56 199
124 -5 55 199
124 -5 54 199
122 -5 52 199
122 -5 51 199
122 -5 50 199
122 -5 48 199
122 -5 47 199
123 -5 47 199
124 -5 46 199
123 -5 45 199
125 -5 45 199
125 -5 43 199
124 -5 42 199
124 -5 41 199
124 -5 40 199
124 -5 39 199
124 -5 38 199
124 -5 37 199
124 -5 36 199
123 -5 34 199
123 -5 34 199
124 -5 33 199
123 -5 31 199
123 -5 30 199
122 -5 29 199
123 -5 28 199
123 -5 27 199
123 -5 26 199
122 -5 25 199
123 -5 25 199
123 -5 23 199
123 -5 23 199
123 -5 22 199
123 -5 21 199
123 -5 20 199
122 -5 19 199
123 -5 18 199
123 -5 17 199
121 -5 16 199
123 -5 15 199
121 -5 14 199
122 -5 13 199
123 -5 12 199
120 -5 11 199
122 -5 10 199
122 -5 9 199
122 -5 8 199
121 -5 7 199
122 -5 6 199
123 -5 6 199
121 -5 5 199
122 -5 4 199
121 -5 3 199
122 -5 2 199
121 -5 1 199
123 -5 0 199
121 -5 -1 199
121 -5 -1 199
122 -5 -2 199
121 -5 -3 199
121 -5 -4 199
121 -5 -5 199
123 -5 -6 199
121 -5 -7 199
121 -5 -8 199
120 -5 -9 199
121 -5 -9 199
120 -5 -10 199
120 -5 -11 199
122 -5 -12 199
119 -5 -13 199
120 -5 -14 199
119 -5 -15 199
121 -5 -16 199
121 -5 -17 199
122 -5 -18 199
120 -5 -18 199
119 -5 -19 199
120 -5 -20 199
120 -5 -21 199
120 -5 -22 199
120 -5 -23 199
118 -5 -23 199
117 -5 -24 199
118 -5 -25 199
117 -5 -26 199
118 -5 -27 199
118 -5 -28 199
119 -5 -29 199
119 -5 -30 199
118 -5 -31 199
119 -5 -32 199
118 -5 -33 199
119 -5 -34 199
119 -5 -35 199
119 -5 -36 199
119 -5 -37 199
118 -5 -37 199
118 -5 -38 199
119 -5 -39 199
117 -5 -40 199
118 -5 -41 199
119 -5 -42 199
117 -5 -43 199
118 -5 -45 199
117 -5 -45 199
116 -5 -46 199
117 -5 -47 199
117 -5 -48 199
117 -5 -49 199
117 -5 -50 199
115 -5 -51 199
117 -5 -52 199
116 -5 -53 199
116 -5 -54 199
116 -5 -55 199
117 -5 -57 199
116 -5 -57 199
116 -5 -58 199
116 -5 -60 199
117 -5 -61 199
116 -5 -62 199
117 -5 -63 199
116 -5 -64 199
116 -5 -65 199
115 -5 -66 199
116 -5 -67 199
115 -5 -68 199
116 -5 -70 199
118 -5 -73 191
123 -5 -81 84
113 -5 -76 175
115 -5 -79 175
115 -5 -81 191
113 -5 -81 199
112 -5 -81 199
109 -5 -80 199
107 -5 -80 199
105 -5 -80 199
105 -5 -80 199
102 -4 -80 199
100 -4 -80 199
99 -4 -80 199
97 -4 -80 199
96 -4 -80 199
94 -4 -79 199
93 -4 -80 199
92 -4 -80 199
91 -4 -81 199
89 -4 -80 199
88 -4 -80 199
87 -4 -80 199
84 -4 -79 199
85 -4 -81 199
82 -4 -79 199
81 -4 -80 199
81 -3 -80 199
-67 4 -66 191
-68 4 -66 191
-69 4 -66 191
-70 4 -66 191
-70 4 -65 191
-74 4 -67 191
-74 4 -66 191
-74 4 -65 191
-76 4 -65 191
-78 4 -66 191
-77 4 -64 191
-80 4 -65 191
-81 4 -65 191
-83 5 -65 199
-84 5 -65 199
-85 5 -65 191
-86 5 -64 199
-86 5 -63 199
-90 5 -65 191
-90 5 -63 199
-92 5 -64 199
-95 5 -65 191
-95 5 -63 199
-94 5 -61 199
-97 5 -63 199
-97 5 -62 199
-100 6 -62 199
-101 6 -62 199
-102 6 -62 199
-101 6 -60 199
-104 6 -61 199
-107 6 -61 199
-106 6 -60 199
-108 6 -59 199
-109 6 -59 199
-112 6 -60 191
-111 6 -57 183
-105 6 -53 175
-112 6 -55 191
-110 6 -53 191
-110 6 -52 191
-109 6 -50 199
-109 6 -49 199
-106 6 -47 199
-105 6 -46 199
-105 6 -45 199
-106 6 -44 199
-105 6 -43 199
-106 6 -42 199
-106 6 -41 199
-106 6 -41 199
-107 6 -40 199
-108 6 -39 199
-107 6 -38 199
-108 6 -37 199
-107 6 -36 199
-107 6 -35 199
-107 6 -34 199
-109 6 -34 199
-109 6 -33 199
-108 6 -32 199
-108 6 -31 199
-110 6 -30 199
-110 6 -30 199
-109 6 -29 199
-108 6 -27 199
-110 6 -27 199
-110 6 -26 199
-111 6 -25 199
-111 6 -25 199
-110 6 -23 199
-111 6 -23 199
-113 6 -22 199
-112 6 -21 199
-113 6 -21 199
-113 6 -20 199
-112 6 -19 199
-112 6 -18 199
-112 6 -17 199
-113 6 -16 199
-113 6 -15 199
-114 6 -15 199
-112 6 -13 199
-114 6 -13 199
-112 6 -12 199
-111 6 -11 199
-110 6 -10 199
-108 6 -9 199
-106 6 -8 199
-106 6 -7 199
-107 6 -7 199
-105 6 -6 199
-104 6 -5 199
-105 6 -4 199
-104 6 -3 199
-105 6 -3 199
-104 6 -2 199
-105 6 -1 199
-105 6 0 199
-106 6 1 199
-107 6 2 199
-108 6 2 199
-111 6 3 199
-117 6 4 199
-150 8 7 199
-163 9 8 199
-163 9 9 199
-165 9 11 199
-147 8 11 183
-115 6 13 84
-110 6 13 159
-88 5 11 183
-92 5 13 191
-91 5 13 199
-91 5 14 191
-92 5 15 199
-92 5 16 191
-89 5 16 191
-91 5 17 191
-89 5 18 199
-89 5 19 191
-90 5 20 191
-90 5 20 199
-89 5 21 191
-89 5 22 199
-90 5 23 191
-89 5 23 191
-89 5 24 191
-88 5 25 191
-89 5 26 191
-89 5 27 191
-89 5 27 191
-92 5 29 191
-91 5 30 191
-91 5 31 191
-93 5 33 191
-95 5 34 191
-93 5 34 191
-96 5 37 191
-99 5 39 191
-104 6 42 191
-107 6 44 191
-109 6 46 191
-104 6 45 191
-141 8 63 175
-151 8 69 167
-151 8 71 175
-150 8 73 167
-169 9 84 175
-188 10 96 183
-196 11 102 191
-197 11 105 199
-193 11 105 191
-189 10 104 199
-185 10 104 199
-181 10 104 199
-178 10 104 199
-174 10 103 199
-170 9 102 199
-166 9 102 199
-177 10 110 199
-193 11 123 199
-200 11 130 191
-202 11 133 199
-201 11 135 199
-199 11 136 199
-200 11 139 199
-201 11 142 191
-194 11 139 199
-191 11 139 199
-188 10 139 199
-184 10 138 199
-182 10 139 199
-178 10 138 199
-176 10 138 199
-172 9 137 199
-170 9 137 199
-167 9 137 199
-164 9 137 199
-172 9 145 199
-195 11 168 191
-196 11 172 199
-194 11 174 199
-191 11 173 199
-188 10 173 199
-185 10 173 199
-183 10 173 199
-179 10 173 199
-176 10 173 199
-173 10 172 199
-172 9 173 199
-169 9 173 199
-166 9 172 199
-164 9 172 199
-160 9 172 199
-160 9 173 199
-156 9 172 199
-154 8 173 199
-151 8 172 199
-147 8 170 199
-147 8 173 199
-146 8 174 199
-145 8 176 199
-147 8 180 199
-147 8 183 199
-146 8 185 199
-147 8 188 199
-146 8 190 199
-145 8 192 199
-145 8 196 199
-153 8 209 199
-167 9 232 199
-165 9 234 191
-163 9 235 191
-159 9 234 199
-155 9 232 191
-153 8 232 199
-151 8 233 199
-148 8 233 199
-145 8 232 199
-143 8 232 199
-140 8 232 199
-138 8 233 199
-135 7 231 199
-133 7 233 199
-130 7 231 199
-128 7 232 199
-125 7 231 199
-124 7 232 199
-121 7 232 199
-119 7 231 199
-116 6 229 199
-114 6 230 199
-111 6 229 199
-109 6 229 199
-107 6 228 199
-104 6 228 199
-103 6 229 199
-100 6 228 199
-98 5 228 199
-97 5 228 199
-95 5 229 199
-93 5 230 199
-91 5 229 199
-89 5 229 199
-87 5 230 199
-85 5 229 199
-83 5 229 199
-81 4 228 199
-79 4 229 199
-77 4 227 199
-75 4 228 199
-73 4 228 199
-70 4 224 199
-69 4 228 199
-67 4 228 199
-66 4 229 199
-64 4 227 199
-62 3 227 199
-59 3 225 199
-58 3 228 199
-56 3 227 199
-54 3 225 199
-52 3 225 199
-51 3 226 199
-48 3 225 199
-47 3 224 199
-45 2 224 199
-43 2 224 199
-41 2 224 199
-40 2 224 199
-38 2 222 199
-36 2 221 199
-34 2 221 199
-33 2 223 199
-31 2 222 199
-29 2 221 199
-27 1 220 199
-26 1 224 199
-24 1 221 199
-22 1 225 199
-20 1 222 199
-18 1 221 199
-16 1 221 199
-14 1 220 199
-12 1 221 199
-10 1 218 199
-9 0 217 199
-7 0 218 199
-5 0 217 199
-3 0 218 199
-1 0 216 199
0 0 217 199
1 0 216 199
3 0 219 199
5 0 217 199
6 0 218 199
8 0 219 191
10 -1 219 199
12 -1 218 199
14 -1 217 199
16 -1 215 199
17 -1 215 199
19 -1 216 199
20 -1 215 199
22 -1 218 199
24 -1 218 199
26 -1 217 199
27 -1 214 199
29 -2 214 199
30 -2 215 199
33 -2 219 199
35 -2 218 199
37 -2 219 199
38 -2 215 199
40 -2 214 199
42 -2 216 199
43 -2 215 199
45 -3 215 199
47 -3 214 199
48 -3 214 199
50 -3 213 199
52 -3 214 199
53 -3 213 199
55 -3 214 199
57 -3 214 199
58 -3 212 199
60 -3 213 199
61 -3 211 199
64 -3 212 199
65 -4 210 199
67 -4 211 199
68 -4 210 199
70 -4 211 199
72 -4 211 199
74 -4 210 199
76 -4 212 199
77 -4 210 199
79 -4 210 199
81 -4 210 199
83 -5 212 199
85 -5 210 199
87 -5 211 199
88 -5 209 199
90 -5 210 199
92 -5 211 199
94 -5 210 199
95 -5 209 199
98 -5 211 199
100 -5 210 199
101 -6 208 199
104 -6 211 199
105 -6 209 199
108 -6 211 199
109 -6 210 199
111 -6 209 199
113 -6 209 199
115 -6 209 199
117 -6 209 199
118 -7 208 199
120 -7 208 199
122 -7 208 199
123 -7 205 199
126 -7 207 199
129 -7 208 199
130 -7 207 199
132 -7 206 199
133 -7 205 199
135 -7 204 199
136 -8 203 199
136 -7 200 199
135 -7 195 199
136 -7 194 199
135 -7 189 199
134 -7 185 199
134 -7 182 199
135 -7 180 199
136 -7 178 199
135 -7 174 199
135 -7 171 199
135 -7 168 191
135 -7 165 199
133 -7 161 199
134 -7 160 199
134 -7 157 199
133 -7 153 199
132 -7 150 199
132 -7 148 199
132 -7 145 199
130 -7 141 199
130 -7 140 199
131 -7 139 199
129 -7 134 199
128 -7 132 199
129 -7 130 199
129 -7 128 199
128 -7 126 199
128 -7 124 199
128 -7 122 199
127 -7 120 199
128 -7 118 199
127 -7 116 199
127 -7 114 199
127 -7 112 199
126 -7 110 199
127 -7 109 199
126 -7 106 199
125 -7 104 199
126 -7 103 199
126 -7 102 199
127 -7 101 199
126 -7 99 199
127 -7 98 199
126 -7 96 199
126 -7 95 199
126 -7 93 199
128 -7 93 199
127 -7 91 199
127 -7 89 199
126 -7 88 199
126 -7 86 199
126 -7 85 199
127 -7 84 199
128 -7 83 199
127 -7 81 199
128 -7 80 199
126 -7 78 199
127 -7 77 199
127 -7 76 199
127 -7 74 199
125 -7 72 199
126 -7 72 199
126 -7 70 199
126 -7 69 199
126 -7 68 199
125 -7 66 199
126 -7 65 199
125 -7 64 199
127 -7 63 199
126 -7 62 199
127 -7 61 199
125 -7 59 199
126 -7 58 199
125 -7 57 199
126 -7 56 199
125 -7 54 199
124 -7 53 199
124 -7 52 199
122 -7 50 199
123 -7 49 199
123 -7 48 199
123 -7 47 199
124 -7 46 199
122 -7 44 199
126 -7 45 199
125 -7 43 199
125 -7 42 199
124 -7 41 199
125 -7 40 199
125 -7 39 199
125 -7 38 199
125 -7 37 199
126 -7 36 199
124 -7 35 199
126 -7 34 199
125 -7 33 199
125 -7 32 199
125 -7 31 199
124 -7 30 199
124 -7 29 199
125 -7 28 199
125 -7 27 199
124 -7 26 199
124 -7 25 199
124 -7 24 199
125 -7 23 199
124 -7 22 199
124 -7 21 199
124 -7 20 199
125 -7 19 199
124 -7 18 199
125 -7 17 199
124 -7 16 199
124 -7 15 199
124 -7 14 199
124 -7 13 199
124 -7 12 199
123 -7 11 199
124 -7 10 199
123 -7 9 199
123 -7 8 199
121 -7 7 199
122 -7 7 199
123 -7 6 199
123 -7 5 199
123 -7 4 199
123 -7 3 199
123 -7 2 199
123 -7 1 199
123 -7 0 199
122 -7 -1 199
122 -7 -1 199
123 -7 -2 199
122 -7 -3 199
121 -7 -4 199
122 -7 -5 199
122 -7 -6 199
121 -7 -7 199
123 -7 -8 199
123 -7 -9 199
122 -7 -10 199
121 -7 -10 199
120 -7 -11 199
119 -7 -12 199
120 -7 -13 199
120 -7 -14 199
119 -7 -15 199
120 -7 -16 199
119 -7 -16 199
121 -7 -18 199
121 -7 -19 199
120 -7 -19 199
119 -7 -20 199
119 -7 -21 199
119 -7 -22 199
119 -7 -23 199
120 -7 -24 199
118 -7 -24 199
118 -7 -25 199
117 -6 -26 199
119 -7 -27 199
118 -6 -28 199
117 -6 -29 199
119 -7 -30 199
119 -7 -31 199
119 -7 -32 199
119 -7 -33 199
119 -7 -34 199
120 -7 -35 199
119 -7 -36 199
119 -7 -37 199
119 -7 -38 199
119 -7 -38 199
118 -7 -39 199
118 -7 -40 199
119 -7 -41 199
119 -7 -42 199
118 -7 -43 199
120 -7 -45 199
117 -6 -45 199
117 -6 -46 199
118 -6 -47 199
117 -6 -48 199
118 -6 -49 199
117 -6 -50 199
116 -6 -51 199
117 -6 -52 199
117 -6 -53 199
117 -6 -54 199
116 -6 -55 199
117 -6 -56 199
117 -6 -58 199
117 -6 -59 199
117 -6 -60 199
117 -6 -61 199
117 -6 -62 199
116 -6 -63 199
116 -6 -63 199
115 -6 -64 199
116 -6 -66 199
116 -6 -67 199
114 -6 -67 199
117 -6 -70 199
121 -7 -74 183
120 -7 -79 84
119 -7 -80 159
123 -7 -84 183
113 -6 -79 191
116 -6 -82 199
113 -6 -81 199
110 -6 -80 199
109 -6 -81 199
107 -6 -81 199
104 -6 -80 199
102 -6 -80 199
100 -6 -80 199
99 -5 -80 199
97 -5 -80 199
96 -5 -80 199
95 -5 -80 199
94 -5 -81 199
91 -5 -79 199
91 -5 -80 199
89 -5 -80 199
87 -5 -79 199
87 -5 -80 199
86 -5 -81 199
83 -5 -78 199
82 -5 -79 199
81 -4 -79 199
79 -4 -79 199
-66 4 -66 191
-67 4 -66 191
-68 5 -66 191
-71 5 -67 191
-71 5 -66 191
-71 5 -65 191
-73 5 -65 191
-75 5 -66 191
-76 5 -65 191
-77 5 -65 191
-77 5 -65 191
-80 5 -65 191
-78 5 -63 191
-81 5 -64 191
-84 6 -66 191
-84 6 -64 199
-87 6 -65 199
-87 6 -64 199
-88 6 -64 199
-89 6 -63 199
-92 6 -64 199
-90 6 -62 199
-95 6 -64 199
-95 6 -63 199
-95 6 -62 199
-98 7 -63 199
-100 7 -63 199
-100 7 -62 199
-101 7 -62 199
-102 7 -61 199
-104 7 -62 199
-104 7 -61 199
-107 7 -61 199
-107 7 -60 199
-108 7 -60 199
-110 7 -59 191
-112 7 -59 191
-111 7 -57 183
-105 7 -53 191
-109 7 -54 191
-111 7 -54 191
-111 7 -53 191
-109 7 -50 199
-111 7 -50 199
-108 7 -48 199
-104 7 -46 199
-106 7 -45 199
-105 7 -44 199
-106 7 -44 199
-106 7 -42 199
-107 7 -42 199
-106 7 -41 199
-107 7 -40 199
-106 7 -39 199
-108 7 -39 199
-109 7 -38 199
-109 7 -37 199
-110 7 -36 199
-110 7 -36 199
-110 7 -35 199
-111 7 -34 199
-111 7 -33 199
-111 7 -32 199
-112 8 -32 199
-112 7 -31 199
-112 7 -30 199
-112 7 -29 199
-113 8 -28 199
-113 8 -27 199
-116 8 -27 199
-117 8 -26 199
-117 8 -25 199
-116 8 -24 199
-117 8 -24 199
-118 8 -23 199
-119 8 -22 199
-118 8 -21 199
-119 8 -20 199
-118 8 -19 199
-118 8 -18 199
-117 8 -17 199
-117 8 -16 199
-118 8 -16 199
-116 8 -14 199
-118 8 -14 199
-111 7 -12 199
-110 7 -11 199
-110 7 -10 199
-106 7 -9 199
-104 7 -8 199
-105 7 -8 199
-104 7 -7 199
-105 7 -6 199
-104 7 -5 199
-104 7 -4 199
-104 7 -4 199
-103 7 -3 199
-104 7 -2 199
-104 7 -1 199
-104 7 0 199
-104 7 1 199
-106 7 2 199
-107 7 2 199
-109 7 3 199
-114 8 4 199
-137 9 6 199
-162 11 9 199
-164 11 10 199
-166 11 12 199
-126 8 12 84
-109 7 14 98
-91 6 12 183
-90 6 13 191
-90 6 14 191
-90 6 14 199
-90 6 15 191
-89 6 16 199
-90 6 17 191
-90 6 18 191
-90 6 19 191
-89 6 19 191
-89 6 20 191
-90 6 21 191
-88 6 21 191
-89 6 22 191
-89 6 23 191
-89 6 24 191
-86 6 24 191
-86 6 25 199
-86 6 26 191
-87 6 27 191
-87 6 27 191
-86 6 28 191
-87 6 29 191
-86 6 30 191
-87 6 31 191
-87 6 32 191
-87 6 32 191
-87 6 33 199
-86 6 34 191
-88 6 35 191
-89 6 37 191
-92 6 39 191
-92 6 40 191
-110 7 49 183
-113 8 52 191
-119 8 56 183
-124 8 60 183
-133 9 65 183
-143 10 72 183
-167 11 86 175
-189 13 100 191
-192 13 104 199
-188 13 103 199
-184 12 103 199
-181 12 103 199
-176 12 102 199
-173 12 102 199
-167 11 100 199
-166 11 101 199
-176 12 109 199
-195 13 123 199
-203 14 130 199
-198 13 129 199
-201 13 133 199
-200 13 135 199
-202 13 138 199
-197 13 138 199
-195 13 139 199
-193 13 139 199
-190 13 139 199
-185 12 138 199
-182 12 138 199
-177 12 136 199
-176 12 138 199
-175 12 138 199
-170 11 136 199
-168 11 137 199
-165 11 136 199
-168 11 141 199
-189 13 161 199
-197 13 171 199
-195 13 171 199
-194 13 173 191
-191 13 173 199
-188 13 174 199
-185 12 174 199
-182 12 174 199
-179 12 173 199
-176 12 173 199
-173 12 173 199
-171 11 173 199
-169 11 173 199
-167 11 174 199
-163 11 173 199
-159 11 170 199
-159 11 174 199
-157 11 174 199
-153 10 173 199
-150 10 171 199
-148 10 172 199
-148 10 174 199
-147 10 175 199
-146 10 177 199
-147 10 181 199
-145 10 182 199
-146 10 186 199
-145 10 187 199
-144 10 188 199
-145 10 193 199
-146 10 198 199
-153 10 210 199
-167 11 233 199
-165 11 236 191
-160 11 233 199
-158 11 233 199
-155 10 233 199
-152 10 233 199
-149 10 233 199
-146 10 233 199
-142 9 231 199
-140 9 231 199
-137 9 231 199
-136 9 232 199
-133 9 232 199
-130 9 231 199
-128 9 231 199
-126 8 231 199
-124 8 232 199
-120 8 229 199
-119 8 230 199
-116 8 229 199
-114 8 230 199
-113 8 231 199
-110 7 229 199
-107 7 229 199
-106 7 230 199
-104 7 230 199
-101 7 228 199
-99 7 228 199
-96 6 226 199
-95 6 228 199
-92 6 227 199
-91 6 228 199
-89 6 228 199
-87 6 228 199
-85 6 229 199
-83 6 227 199
-81 5 228 199
-79 5 228 199
-77 5 228 199
-75 5 228 199
-73 5 227 199
-70 5 224 199
-69 5 225 199
-67 5 227 199
-65 4 224 199
-64 4 227 199
-61 4 225 199
-60 4 225 199
-58 4 227 199
-56 4 225 199
-55 4 225 199
-52 3 223 199
-51 3 224 199
-49 3 224 199
-47 3 225 199
-45 3 223 199
-44 3 224 199
-42 3 224 199
-40 3 222 199
-38 3 222 199
-36 2 222 199
-35 2 220 199
-33 2 220 199
-31 2 220 199
-29 2 220 199
-28 2 221 199
-26 2 222 199
-24 2 220 199
-22 1 223 199
-21 1 222 199
-19 1 222 199
-17 1 219 199
-15 1 220 199
-13 1 223 199
-11 1 220 199
-9 1 217 199
-7 0 219 199
-6 0 217 199
-4 0 217 199
-2 0 218 199
0 0 217 199
0 0 216 199
2 0 218 199
4 0 217 199
5 0 216 199
7 0 217 199
9 -1 217 199
10 -1 216 199
12 -1 215 199
14 -1 216 199
15 -1 215 199
17 -1 215 199
18 -1 215 199
20 -1 216 199
22 -1 217 199
23 -2 215 199
25 -2 217 199
26 -2 214 199
28 -2 213 199
29 -2 211 199
31 -2 215 199
33 -2 217 199
35 -2 217 199
37 -2 216 199
38 -3 213 199
40 -3 214 199
42 -3 215 199
44 -3 215 199
45 -3 214 199
48 -3 215 199
50 -3 215 199
51 -3 213 199
54 -4 215 199
55 -4 214 199
57 -4 214 199
59 -4 212 199
60 -4 211 199
62 -4 211 199
64 -4 211 199
66 -4 211 199
68 -5 210 199
70 -5 211 199
71 -5 210 199
73 -5 211 199
75 -5 212 199
77 -5 212 199
79 -5 212 199
81 -5 211 199
82 -5 210 199
86 -6 212 199
88 -6 211 199
89 -6 211 199
90 -6 209 199
93 -6 210 199
95 -6 211 199
97 -6 211 199
98 -7 209 199
100 -7 209 199
101 -7 208 199
103 -7 209 199
105 -7 209 199
108 -7 212 199
110 -7 210 199
111 -7 209 199
114 -8 210 199
115 -8 209 199
117 -8 208 199
119 -8 208 199
121 -8 208 199
122 -8 208 199
124 -8 207 199
126 -8 207 199
128 -9 207 199
130 -9 207 199
132 -9 206 199
133 -9 204 199
135 -9 205 199
136 -9 202 199
137 -9 201 199
137 -9 197 199
135 -9 192 199
136 -9 190 199
136 -9 187 199
135 -9 182 199
137 -9 182 199
135 -9 177 199
136 -9 174 191
136 -9 172 199
135 -9 167 199
133 -9 163 199
134 -9 161 199
134 -9 159 199
134 -9 157 199
134 -9 155 199
133 -9 151 199
133 -9 149 199
131 -9 145 199
133 -9 144 199
132 -9 141 199
134 -9 141 199
129 -9 135 199
129 -9 132 199
129 -9 131 199
129 -9 128 199
129 -9 127 199
129 -9 125 199
130 -9 123 199
129 -9 121 199
128 -9 119 199
129 -9 117 199
128 -9 115 199
127 -9 112 199
127 -8 110 199
126 -8 108 199
126 -8 106 199
125 -8 103 199
125 -8 102 199
125 -8 101 199
126 -8 100 199
125 -8 98 199
126 -8 97 199
126 -8 95 199
127 -8 94 199
127 -8 92 199
126 -8 90 199
126 -8 89 199
126 -8 88 199
126 -8 86 199
125 -8 84 199
126 -8 83 199
126 -8 82 199
126 -8 81 199
127 -8 80 199
127 -9 79 199
127 -8 77 199
127 -8 76 199
126 -8 74 199
127 -8 74 199
127 -8 72 199
125 -8 70 199
126 -8 69 199
125 -8 67 199
125 -8 67 199
127 -8 66 199
125 -8 64 199
126 -8 63 199
126 -8 62 199
125 -8 61 199
125 -8 60 199
125 -8 58 199
124 -8 57 199
125 -8 56 199
124 -8 54 199
124 -8 53 199
124 -8 52 199
124 -8 51 199
122 -8 49 199
124 -8 48 199
122 -8 47 199
122 -8 46 199
122 -8 44 199
125 -8 45 199
126 -8 44 199
124 -8 42 199
125 -8 41 199
126 -8 40 199
126 -8 39 199
124 -8 37 199
123 -8 36 199
125 -8 36 199
125 -8 35 199
124 -8 34 199
125 -8 33 199
124 -8 31 199
124 -8 30 199
123 -8 29 199
125 -8 29 199
124 -8 27 199
123 -8 26 199
123 -8 25 199
123 -8 24 199
123 -8 23 199
124 -8 22 199
124 -8 21 199
123 -8 20 199
123 -8 19 199
123 -8 18 199
123 -8 18 199
124 -8 17 199
124 -8 16 199
123 -8 15 199
123 -8 14 199
123 -8 13 199
122 -8 12 199
122 -8 11 199
122 -8 10 199
122 -8 9 199
121 -8 8 199
124 -8 7 199
124 -8 6 199
124 -8 5 199
125 -8 5 199
124 -8 4 199
124 -8 3 199
123 -8 2 199
124 -8 1 199
122 -8 0 199
123 -8 -1 199
124 -8 -2 199
123 -8 -3 199
122 -8 -4 199
123 -8 -4 199
122 -8 -5 199
122 -8 -6 199
122 -8 -7 199
121 -8 -8 199
121 -8 -9 199
120 -8 -10 199
120 -8 -11 199
121 -8 -12 199
122 -8 -13 199
121 -8 -13 199
121 -8 -14 199
121 -8 -15 199
121 -8 -16 199
122 -8 -17 199
120 -8 -18 199
121 -8 -19 199
121 -8 -20 199
121 -8 -21 199
121 -8 -21 199
121 -8 -22 199
118 -8 -23 199
119 -8 -24 199
119 -8 -25 199
120 -8 -26 199
118 -8 -26 199
119 -8 -27 199
119 -8 -29 199
120 -8 -30 199
120 -8 -31 199
120 -8 -31 199
119 -8 -32 199
119 -8 -33 199
119 -8 -34 199
120 -8 -35 199
118 -8 -36 199
118 -8 -37 199
119 -8 -38 199
119 -8 -39 199
117 -8 -39 199
119 -8 -41 199
120 -8 -42 199
118 -8 -43 199
119 -8 -44 199
118 -8 -45 199
117 -8 -46 199
118 -8 -47 199
117 -8 -48 199
117 -8 -49 199
118 -8 -50 199
118 -8 -51 199
117 -8 -52 199
117 -8 -53 199
117 -8 -54 199
117 -8 -55 199
118 -8 -57 199
117 -8 -57 199
117 -8 -58 199
117 -8 -59 199
117 -8 -61 199
117 -8 -62 199
117 -8 -63 199
117 -8 -64 199
117 -8 -65 199
115 -8 -65 199
114 -8 -66 199
115 -8 -68 199
114 -8 -68 199
113 -8 -68 199
115 -8 -71 191
111 -7 -70 191
112 -8 -72 191
113 -8 -75 175
116 -8 -78 159
117 -8 -80 175
116 -8 -81 191
115 -8 -82 199
112 -7 -81 199
109 -7 -80 199
109 -7 -81 199
106 -7 -80 199
103 -7 -79 199
102 -7 -80 199
101 -7 -80 199
100 -7 -80 199
98 -7 -80 199
96 -6 -80 199
95 -6 -80 199
95 -6 -81 199
92 -6 -80 199
91 -6 -80 199
90 -6 -81 199
88 -6 -80 199
87 -6 -80 199
85 -6 -80 199
85 -6 -81 199
84 -6 -81 199
81 -5 -80 199
79 -5 -78 199
-64 5 -64 191
-67 5 -66 191
-66 5 -64 191
-70 5 -66 191
-71 6 -66 191
-69 5 -63 191
-72 6 -65 191
-73 6 -65 191
-74 6 -64 191
-77 6 -65 191
-77 6 -65 191
-80 6 -65 191
-81 6 -65 191
-81 6 -64 199
-83 7 -64 191
-85 7 -65 191
-85 7 -64 199
-87 7 -64 199
-87 7 -63 199
-88 7 -63 199
-87 7 -61 199
-93 7 -64 199
-93 7 -63 199
-95 7 -63 199
-94 7 -62 199
-97 8 -63 199
-99 8 -63 199
-99 8 -62 199
-102 8 -62 199
-102 8 -61 199
-103 8 -61 199
-103 8 -60 199
-104 8 -59 199
-108 8 -61 199
-110 9 -61 199
-108 8 -58 191
-114 9 -60 191
-108 9 -56 175
-108 8 -54 191
-110 9 -54 191
-109 9 -53 199
-108 9 -51 199
-110 9 -51 199
-109 9 -50 199
-108 9 -48 199
-105 8 -46 199
-106 8 -46 199
-106 8 -44 199
-106 8 -44 199
-107 8 -43 199
-107 8 -42 199
-108 8 -42 199
-107 8 -40 199
-108 8 -40 199
-108 8 -39 199
-110 9 -39 199
-111 9 -38 199
-113 9 -38 199
-114 9 -37 199
-114 9 -36 199
-116 9 -36 199
-116 9 -35 199
-117 9 -34 199
-118 9 -33 199
-119 9 -33 199
-123 10 -33 199
-127 10 -33 199
-132 10 -33 199
-127 10 -31 199
-130 10 -31 199
-128 10 -29 199
-120 9 -26 199
-121 10 -26 199
-121 10 -25 199
-129 10 -25 199
-141 11 -26 199
-143 11 -26 199
-139 11 -24 199
-137 11 -22 199
-135 11 -21 199
-134 11 -20 199
-128 10 -18 199
-123 10 -16 199
-119 9 -14 199
-118 9 -14 199
-111 9 -12 199
-110 9 -11 199
-109 9 -10 199
-105 8 -9 199
-104 8 -8 199
-104 8 -7 199
-103 8 -7 199
-103 8 -6 199
-104 8 -5 199
-104 8 -4 199
-101 8 -3 199
-104 8 -2 199
-102 8 -2 199
-103 8 -1 199
-103 8 0 199
-103 8 1 199
-104 8 2 199
-105 8 3 199
-105 8 4 199
-108 8 4 199
-124 10 6 199
-158 12 9 199
-165 13 11 199
-162 13 12 199
-126 10 11 159
-114 9 14 84
-105 8 13 167
-98 8 13 183
-90 7 13 191
-92 7 14 191
-91 7 15 191
-89 7 15 191
-91 7 17 191
-89 7 17 191
-90 7 18 191
-90 7 19 191
-92 7 20 191
-89 7 20 191
-89 7 21 199
-89 7 22 191
-90 7 23 191
-89 7 23 191
-89 7 24 191
-90 7 25 191
-87 7 25 191
-87 7 26 191
-88 7 27 191
-86 7 28 191
-88 7 29 191
-87 7 29 191
-89 7 31 191
-88 7 32 191
-88 7 32 191
-88 7 33 191
-87 7 34 191
-88 7 35 191
-88 7 36 191
-89 7 37 191
-90 7 38 191
-90 7 39 191
-92 7 41 191
-94 7 43 191
-97 8 45 191
-103 8 50 191
-112 9 55 191
-123 10 62 191
-138 11 71 183
-168 13 88 175
-188 15 101 191
-191 15 104 199
-188 15 104 199
-182 14 103 199
-181 14 104 199
-176 14 103 199
-171 13 102 199
-168 13 102 199
-175 14 108 199
-197 16 123 199
-202 16 129 199
-204 16 132 199
-204 16 135 199
-203 16 136 199
-201 16 137 199
-202 16 140 199
-198 16 140 199
-195 15 140 199
-193 15 140 199
-189 15 140 199
-187 15 140 199
-179 14 137 199
-178 14 138 199
-172 14 135 199
-171 13 138 199
-168 13 137 199
-165 13 137 199
-178 14 151 199
-197 16 170 199
-198 16 173 199
-197 16 175 191
-194 15 175 199
-191 15 175 199
-187 15 174 199
-184 14 173 199
-181 14 173 199
-178 14 173 199
-176 14 174 199
-174 14 174 199
-171 13 174 199
-169 13 174 199
-165 13 173 199
-164 13 175 199
-162 13 175 199
-159 13 175 199
-156 12 174 199
-154 12 173 199
-152 12 174 199
-150 12 174 199
-149 12 176 199
-148 12 177 199
-148 12 180 199
-148 12 183 199
-147 12 185 199
-148 12 189 199
-147 12 192 199
-146 11 192 199
-145 11 194 199
-146 11 198 199
-160 13 221 199
-168 13 236 199
-166 13 238 191
-161 13 236 199
-158 12 235 199
-155 12 234 199
-151 12 233 199
-149 12 233 199
-147 12 234 199
-145 11 235 199
-142 11 233 199
-139 11 233 199
-138 11 234 199
-135 11 234 199
-133 10 235 199
-129 10 230 199
-127 10 232 199
-125 10 232 199
-122 10 231 199
-120 9 231 199
-117 9 230 199
-114 9 229 199
-113 9 230 199
-110 9 228 199
-108 8 228 199
-106 8 229 199
-104 8 229 199
-102 8 228 199
-100 8 228 199
-97 8 227 199
-96 8 229 199
-93 7 227 199
-92 7 228 199
-90 7 228 199
-88 7 228 199
-86 7 227 199
-84 7 227 199
-81 6 227 199
-80 6 227 199
-78 6 228 199
-76 6 227 199
-74 6 225 199
-72 6 226 199
-70 6 226 199
-68 5 227 199
-66 5 224 199
-65 5 228 199
-63 5 226 199
-61 5 225 199
-59 5 224 199
-57 5 225 199
-56 4 226 199
-54 4 226 199
-52 4 226 199
-50 4 224 199
-48 4 223 199
-46 4 223 199
-45 4 224 199
-43 3 222 199
-41 3 222 199
-39 3 223 199
-37 3 222 199
-36 3 222 199
-34 3 220 199
-32 3 221 199
-30 2 221 199
-29 2 223 199
-27 2 221 199
-25 2 223 199
-24 2 223 199
-22 2 224 199
-20 2 222 199
-18 1 218 199
-16 1 218 199
-15 1 221 199
-13 1 220 199
-11 1 218 199
-9 1 218 199
-8 1 218 199
-6 0 216 199
-4 0 216 199
-3 0 216 199
-1 0 217 199
0 0 215 199
1 0 218 199
3 0 218 199
5 0 217 199
7 -1 215 199
8 -1 216 199
10 -1 217 199
11 -1 217 199
13 -1 215 199
15 -1 216 199
16 -1 215 199
18 -1 216 199
19 -2 215 199
21 -2 216 199
23 -2 215 199
24 -2 215 199
26 -2 213 199
27 -2 213 199
29 -2 212 199
31 -2 214 199
34 -3 218 199
35 -3 218 199
37 -3 220 199
38 -3 215 199
40 -3 215 199
42 -3 215 199
44 -3 215 199
45 -4 214 199
47 -4 214 199
49 -4 215 199
50 -4 214 199
53 -4 214 199
54 -4 212 199
56 -4 213 199
57 -4 210 199
59 -5 211 199
60 -5 211 199
62 -5 212 199
64 -5 210 199
66 -5 211 199
67 -5 209 199
70 -5 211 199
71 -6 211 199
73 -6 210 199
74 -6 210 199
76 -6 210 199
78 -6 210 199
80 -6 209 199
82 -6 210 199
85 -7 210 199
86 -7 209 199
89 -7 211 199
90 -7 210 199
92 -7 210 199
93 -7 209 199
96 -8 211 199
97 -8 209 199
99 -8 210 199
101 -8 210 199
103 -8 211 199
106 -8 212 199
106 -8 208 199
109 -9 210 199
110 -9 210 199
112 -9 209 199
114 -9 208 199
117 -9 210 199
117 -9 207 199
120 -9 209 199
122 -10 208 199
123 -10 206 199
125 -10 206 199
127 -10 207 199
130 -10 207 199
131 -10 206 199
133 -10 206 199
134 -11 204 199
135 -11 203 199
137 -11 203 199
136 -11 197 199
137 -11 196 199
138 -11 194 199
137 -11 189 199
137 -11 187 199
136 -11 183 199
136 -11 180 199
136 -11 176 191
135 -11 172 191
136 -11 170 199
137 -11 168 199
136 -11 165 199
135 -11 161 199
135 -11 158 199
136 -11 157 199
135 -11 154 199
134 -11 151 199
133 -10 147 199
134 -11 146 199
133 -10 142 199
132 -10 140 199
130 -10 136 199
130 -10 134 199
130 -10 132 199
128 -10 129 199
129 -10 128 199
129 -10 125 199
129 -10 123 199
129 -10 121 199
130 -10 120 199
129 -10 117 199
129 -10 115 199
129 -10 114 199
128 -10 111 199
127 -10 109 199
127 -10 107 199
127 -10 105 199
127 -10 104 199
127 -10 103 199
127 -10 101 199
126 -10 99 199
127 -10 98 199
127 -10 97 199
127 -10 95 199
129 -10 95 199
128 -10 93 199
128 -10 91 199
128 -10 90 199
129 -10 89 199
129 -10 88 199
128 -10 86 199
128 -10 85 199
129 -10 84 199
129 -10 82 199
129 -10 81 199
129 -10 80 199
130 -10 79 199
129 -10 77 199
129 -10 76 199
129 -10 74 199
128 -10 73 199
129 -10 72 199
128 -10 70 199
128 -10 69 199
128 -10 68 199
128 -10 67 199
126 -10 64 199
127 -10 63 199
127 -10 63 199
128 -10 62 199
127 -10 60 199
127 -10 59 199
126 -10 57 199
127 -10 56 199
126 -10 55 199
125 -10 53 199
125 -10 52 199
124 -10 50 199
124 -10 49 199
124 -10 48 199
125 -10 47 199
125 -10 47 199
125 -10 45 199
127 -10 45 199
128 -10 44 199
127 -10 43 199
125 -10 41 199
127 -10 41 199
126 -10 39 199
126 -10 38 199
125 -10 37 199
126 -10 36 199
125 -10 35 199
124 -10 34 199
124 -10 33 199
125 -10 32 199
124 -10 31 199
124 -10 29 199
125 -10 29 199
124 -10 27 199
125 -10 27 199
124 -10 25 199
125 -10 25 199
124 -10 24 199
124 -10 22 199
124 -10 21 199
124 -10 21 199
124 -10 20 199
123 -10 18 199
123 -10 18 199
125 -10 17 199
124 -10 16 199
125 -10 15 199
125 -10 14 199
124 -10 13 199
123 -10 12 199
122 -10 11 199
123 -10 10 199
124 -10 9 199
122 -10 8 199
124 -10 7 199
124 -10 6 199
124 -10 5 199
125 -10 5 199
124 -10 4 199
123 -10 3 199
123 -10 2 199
123 -10 1 199
123 -10 0 199
122 -10 -1 199
123 -10 -2 199
123 -10 -3 199
122 -10 -4 199
123 -10 -4 199
123 -10 -5 199
121 -10 -6 199
121 -10 -7 199
121 -10 -8 199
122 -10 -9 199
121 -10 -10 199
122 -10 -11 199
122 -10 -12 199
122 -10 -13 199
121 -10 -13 199
121 -10 -14 199
123 -10 -15 199
122 -10 -16 199
121 -10 -17 199
120 -9 -18 199
121 -10 -19 199
121 -10 -20 199
121 -10 -21 199
122 -10 -22 199
121 -9 -22 199
120 -9 -23 199
119 -9 -24 199
120 -9 -25 199
121 -10 -26 199
120 -9 -27 199
119 -9 -28 199
120 -9 -29 199
120 -9 -30 199
121 -10 -31 199
121 -9 -32 199
120 -9 -32 199
121 -10 -34 199
120 -9 -34 199
120 -9 -35 199
119 -9 -36 199
120 -9 -37 199
120 -9 -38 199
119 -9 -39 199
120 -9 -40 199
120 -9 -41 199
120 -9 -42 199
119 -9 -43 199
120 -9 -44 199
119 -9 -45 199
118 -9 -46 199
119 -9 -47 199
118 -9 -48 199
118 -9 -49 199
118 -9 -50 199
117 -9 -51 199
118 -9 -52 199
118 -9 -53 199
118 -9 -54 199
118 -9 -55 199
118 -9 -56 199
119 -9 -58 199
118 -9 -59 199
118 -9 -60 199
118 -9 -61 199
117 -9 -62 199
117 -9 -63 199
117 -9 -63 199
118 -9 -65 199
115 -9 -65 199
115 -9 -66 199
113 -9 -66 199
112 -9 -67 199
112 -9 -68 199
109 -9 -67 199
110 -9 -69 199
109 -9 -69 199
108 -9 -70 199
106 -8 -70 199
106 -8 -71 199
110 -9 -75 191
113 -9 -79 199
115 -9 -81 199
112 -9 -81 199
110 -9 -80 199
107 -8 -79 199
106 -8 -80 199
105 -8 -80 199
102 -8 -80 199
101 -8 -80 199
100 -8 -80 199
98 -8 -80 199
97 -8 -80 199
95 -7 -80 199
93 -7 -80 199
93 -7 -80 199
91 -7 -80 199
90 -7 -80 199
87 -7 -79 199
87 -7 -80 199
86 -7 -80 199
85 -7 -80 199
84 -7 -81 199
81 -6 -80 199
80 -6 -79 199
-67 6 -67 191
-67 6 -65 191
-69 6 -66 191
-69 6 -65 191
-70 6 -65 191
-72 6 -65 191
-74 7 -66 191
-75 7 -66 191
-76 7 -66 191
-76 7 -64 191
-78 7 -65 191
-80 7 -65 191
-80 7 -64 191
-81 7 -64 199
-84 8 -66 191
-83 8 -64 199
-85 8 -64 191
-87 8 -64 199
-88 8 -64 199
-89 8 -63 199
-88 8 -62 199
-90 8 -62 199
-94 9 -64 199
-96 9 -63 199
-95 9 -62 199
-96 9 -62 199
-99 9 -63 199
-100 9 -62 199
-101 9 -62 199
-102 9 -61 199
-103 9 -61 199
-103 9 -60 199
-105 9 -60 199
-107 10 -60 199
-110 10 -61 199
-110 10 -59 199
-110 10 -58 191
-104 9 -54 191
-108 10 -54 191
-113 10 -56 191
-107 10 -51 199
-108 10 -51 199
-109 10 -50 199
-111 10 -50 199
-110 10 -49 199
-107 10 -47 199
-107 10 -46 199
-108 10 -45 199
-108 10 -44 199
-108 10 -43 199
-110 10 -43 199
-111 10 -42 199
-114 10 -42 199
-115 10 -42 199
-115 10 -41 199
-120 11 -42 199
-121 11 -41 199
-124 11 -41 199
-125 11 -40 199
-130 12 -41 199
-143 13 -44 199
-145 13 -43 199
-149 14 -43 191
-153 14 -42 191
-163 15 -44 191
-177 16 -46 199
-189 17 -47 199
-199 18 -48 199
-197 18 -46 199
-194 18 -44 199
-185 17 -40 183
-170 15 -34 159
-166 15 -32 191
-168 15 -31 199
-168 15 -30 199
-167 15 -28 199
-167 15 -27 199
-165 15 -25 199
-167 15 -24 199
-165 15 -23 199
-151 14 -19 199
-118 11 -14 199
-110 10 -12 199
-110 10 -11 199
-106 10 -10 199
-103 9 -9 199
-102 9 -8 199
-102 9 -8 199
-101 9 -7 199
-101 9 -6 199
-100 9 -5 199
-101 9 -4 199
-102 9 -3 199
-100 9 -2 199
-100 9 -1 199
-100 9 -1 199
-101 9 0 199
-102 9 1 199
-103 9 2 199
-103 9 3 199
-103 9 4 199
-104 9 5 199
-112 10 6 199
-150 14 9 199
-163 15 11 199
-161 15 13 191
-117 11 13 84
-118 11 15 159
-108 10 14 191
-104 9 14 199
-91 8 13 191
-91 8 14 191
-90 8 15 191
-89 8 16 191
-88 8 16 191
-89 8 17 191
-88 8 18 191
-89 8 19 191
-89 8 20 191
-88 8 20 191
-89 8 21 191
-88 8 22 191
-88 8 22 191
-89 8 24 191
-87 8 24 191
-88 8 25 191
-87 8 25 199
-86 8 26 191
-85 8 26 199
-85 8 27 191
-87 8 29 191
-87 8 29 191
-87 8 30 191
-88 8 32 191
-86 8 32 191
-87 8 33 191
-86 8 34 191
-85 8 34 191
-86 8 35 191
-86 8 36 191
-86 8 37 191
-87 8 38 191
-87 8 39 191
-87 8 40 191
-88 8 42 199
-89 8 43 191
-89 8 43 191
-93 8 46 191
-99 9 51 191
-115 10 60 191
-139 13 74 183
-157 14 86 183
-178 16 99 199
-181 16 103 199
-178 16 103 199
-172 16 102 199
-166 15 100 199
-172 16 105 199
-196 18 123 199
-204 18 130 199
-203 18 131 199
-202 18 132 199
-203 18 136 199
-202 18 137 199
-202 18 139 199
-198 18 139 199
-195 18 139 199
-192 17 139 199
-190 17 139 199
-185 17 138 199
-181 16 137 199
-177 16 136 199
-174 16 137 199
-171 15 136 199
-168 15 136 199
-166 15 137 199
-170 15 142 191
-197 18 168 199
-198 18 171 199
-198 18 174 191
-197 18 176 199
-192 17 174 199
-188 17 173 199
-184 17 173 199
-184 17 175 199
-180 16 173 199
-178 16 174 199
-174 16 173 199
-171 15 172 199
-168 15 172 199
-167 15 174 199
-164 15 173 199
-163 15 174 199
-161 15 175 199
-159 14 175 199
-155 14 173 199
-152 14 172 199
-150 14 174 199
-148 13 173 199
-148 13 176 199
-148 13 179 199
-147 13 180 199
-148 13 185 199
-148 13 187 199
-147 13 189 199
-147 13 192 199
-147 13 195 199
-145 13 196 199
-159 14 219 199
-169 15 236 199
-166 15 237 191
-162 15 234 199
-159 14 235 191
-156 14 235 199
-152 14 233 199
-150 14 234 199
-148 13 235 199
-145 13 233 199
-143 13 233 199
-140 13 233 199
-138 12 233 199
-135 12 233 199
-133 12 233 199
-131 12 233 199
-128 12 232 199
-126 11 233 199
-123 11 232 199
-121 11 232 199
-119 11 232 199
-117 11 232 199
-114 10 231 199
-113 10 232 199
-110 10 232 199
-107 10 229 199
-105 10 230 199
-104 9 231 199
-102 9 230 199
-99 9 228 199
-97 9 230 199
-95 9 229 199
-93 8 230 199
-92 8 230 199
-89 8 228 199
-87 8 228 199
-85 8 230 199
-83 8 228 199
-81 7 229 199
-80 7 230 199
-77 7 228 199
-75 7 229 199
-74 7 228 199
-72 7 229 199
-70 6 228 199
-68 6 228 199
-66 6 230 199
-64 6 227 199
-63 6 229 199
-60 5 227 199
-58 5 226 199
-57 5 227 199
-55 5 226 199
-52 5 225 199
